# 3D point list with one line of data per point:
#   POINT3D_ID, X, Y, Z, R, G, B, ERROR, TRACK[] as (IMAGE_ID, POINT2D_IDX)
# Number of points: 377, mean track length: 4.1824750394114556
717 -3.9519999705448394 1.5741440116571415 4.9684452832064556 89 90 74 1.6187861913077279 15 944 18 1401
5803 -2.7274908143474166 0.69375721543272562 6.2379374030960779 203 179 1 0.3540677605551355 7 194 8 178
716 -3.9456611379619368 1.6026339440626494 4.0948872541482446 19 24 28 0.77961108548163049 12 1215 18 1400
715 -2.2072914909828332 0.5763978961171955 6.7510735528244581 152 151 119 0.66468653842597603 18 1396 24 1646 19 1756
5800 -2.9202673891863333 1.5545653382456743 5.1743274081750474 214 193 1 0.65301931629903354 5 120 7 119 8 120
713 -4.7552612536312688 0.49089450671106677 6.0250713208873252 245 207 48 1.7921077965946677 12 750 18 1376 9 1141 11 542 17 786 14 542 13 864 20 887 25 771 21 541
712 -4.827280674402247 1.7641837181181415 4.2655558633718567 149 155 129 1.0163743915907479 15 1053 18 1366 24 2149
5798 -4.2250137870268647 1.0068593737232852 5.7660834368703151 217 188 0 0.42010331223631314 5 72 7 67 8 68
711 -2.4624622058056449 1.7876356389546086 4.8993425357397369 211 190 127 1.8317701565578097 12 753 19 508 14 1230 13 1022 27 813 6 360 3 335 29 311 39 572 35 1111
5797 -3.0035877502682986 1.7600314152722007 4.9245030938660568 0 0 0 0.51340578195542896 4 45 7 45
708 -8.0620784947418844 0.51055772152778711 6.8798755734217751 87 89 78 1.3844152193853234 12 551 18 1310 9 550 11 534
5794 -4.6103411792616598 0.86934588172618465 6.5956910700703357 79 103 57 1.5732952701688814 4 652 7 69 43 102 32 138
707 -4.8319049847411559 0.83968206919728861 6.0996901853256258 15 34 0 2.2130946437020245 15 722 22 2247 13 839
705 -4.3660827185337308 0.73107334495449328 5.8009066102417082 204 175 4 3.0941324515885396 15 1211 18 1302 23 1481
704 -3.0625223376070623 0.66546062065883149 6.2861238202002161 139 138 110 0.9630444304752902 12 930 18 1296 11 911 17 1031 13 1114 20 943 21 983 25 754 27 1073
702 -4.2183457834370293 0.63342861082758906 6.1333201754082118 200 177 16 1.0962326258163135 12 961 18 1285 24 1609 11 951
5785 -7.9436889987557029 3.8588352880360586 8.820048508205895 83 86 59 1.8727189643773123 7 1044 5 834
698 -4.2615595769246628 0.66022549926675278 6.0644857041263158 200 176 18 1.7965551375050797 15 1206 18 1278 23 1453 22 1738 20 954 13 956 19 1443
697 -4.3547419554061877 0.67637152421687985 6.0094374423440744 199 177 35 1.4125323165476245 12 958 18 1275 24 1039 11 562 14 1068 10 780
5783 -2.8138667535334747 2.1660105404459595 5.5307916169820084 194 173 148 1.0695051517056342 7 596 5 656
696 -8.2027666427285251 0.67317859745175213 6.6616399422096153 20 20 12 1.1097317151783714 15 601 18 1273 22 721
695 -7.2064761332694474 0.025872745922298761 7.9501250392765863 63 64 56 1.5151712068740704 12 737 18 1259 9 882 14 533
5781 -15.091994635286984 8.3321463053296334 13.514683788959188 0 0 0 1.1381544717712522 2 686 3 950
694 -8.1076700408689231 0.19516510277298035 7.3741221671904542 110 110 100 0.96763812825984807 15 821 18 1256 24 1104
5780 -3.4107166208423694 1.0092596876845339 5.5035055973738762 145 151 125 0.42832602186630847 7 467 5 494
693 -6.4465649970250256 -0.30987658041425709 8.7380886260705015 32 32 22 1.8437805752566869 15 579 18 1246 9 560 14 930 13 523
5779 -4.2456374063938114 1.5141276507651611 5.701177552425496 0 0 0 0.68066692649739369 6 266 7 422
692 -7.5102132051111203 0.23725666389355604 7.6145422255028876 109 109 98 1.5382093345662418 12 966 15 362 18 1232 24 352 22 1335 23 336 22 408 9 1146 14 1032
5777 -2.5309226403259353 2.445795122741389 4.7423275362845567 71 16 4 1.5192124189654859 2 196 7 172 12 417 15 396 18 368 24 322 22 300 23 283 19 219 9 249 11 305 17 256 14 344 13 323 20 594 17 621 21 274 21 601 25 605 26 418 27 198 10 272 16 293 28 472 6 268 3 201 1 215 2 244 4 274 7 277 5 209 8 253 29 285 38 352 39 446 40 460 34 271 35 303 31 696 37 401 41 395 30 284 32 188
690 -7.7124151943433663 0.30278617138553138 7.3342646933676292 86 88 76 1.5607139177892035 12 745 22 1330 24 1879 23 1372
5776 -4.0629018394069183 0.88917529678935225 6.104519506313494 234 200 29 1.1940086468434881 2 250 4 359 7 342 5 320 3 316 1 698 8 365
689 -7.5894125791703217 0.2935360872932683 7.4661567192329379 108 108 96 1.4970631058391322 12 970 15 573 18 1228 22 401 24 514 23 542 9 1150 11 936 14 936
5775 -3.9132930282062786 1.3102803497997348 8.3429316892111682 141 147 119 0.92903351407112844 6 681 8 1112
688 -3.3013797919182117 0.78266813007201963 6.1557589505762698 140 140 117 1.2890604572381354 15 1239 18 1224 24 977 23 1546
5774 -3.869458156346266 2.1983824853730733 4.6549729754204234 101 67 14 0.18092144571481361 7 985 5 1278
687 -7.6541148093327518 0.36684992885911 7.2957228400617078 101 101 89 2.4959680003277818 12 978 15 467 18 1218 17 299
686 -3.8674500256687936 0.98305226101471999 5.3821939596227306 194 190 168 0.99576178774554969 12 1268 18 1189 13 838
5771 -2.4599005278181618 0.47392280769720757 6.8577381910260913 152 158 128 1.3256472133759516 6 686 5 1254
684 -3.7317305924326827 1.0383252008078707 5.4134904720025974 168 172 149 1.0805758448788261 15 1230 18 1184 24 2294 22 1483 14 1126 34 615
5770 -2.538348843434397 0.5373130642002607 6.5748218730079131 152 156 133 0.39841631963102009 7 957 5 1247
683 -4.2224610949394457 1.4433904861135705 1.4818783240789157 133 119 34 0.84221564436031571 15 785 18 1179
5769 -2.6036622092406896 0.58344847425470914 6.4900674847678861 91 82 33 0.43880795258456057 7 955 5 1244 8 644
682 -3.1269632791678328 0.97965688543603491 5.6531041837205445 183 188 158 1.2241810889302651 12 687 18 1171 9 673 11 727 17 508 13 507 14 521 20 504 21 801 25 408
5767 -3.9573179304533732 1.6078349743853624 7.3552894799913187 71 76 44 0.8568423454248344 4 1053 5 1227
680 -4.0654418174558495 1.5536297844120017 4.7300051888725019 178 175 142 1.4175313594545718 15 945 18 1160 24 1544 14 732
5765 -3.2013094396028294 1.0024084665058415 5.7400261582998624 147 152 129 0.18642831600673601 7 626 5 1202 8 1057
678 -4.2865439114820845 1.0218975093769618 6.1435404170488201 172 133 0 0.81742416405585372 15 1222 20 929
5764 -2.903951504504342 0.7221717463168168 6.2946376158245902 165 161 123 0.27756935260645099 4 1047 5 1198
677 -2.7252910432748361 0.95814145143728935 6.0592151996212422 230 193 35 1.0479453073528859 15 1218 18 1137 22 1540 23 718 19 630 10 655
5762 -2.8366226590211521 0.76455237908584739 6.3401800795942274 204 176 0 0.15911756812195343 7 953 5 1191 8 1094
675 -3.8769658931743098 1.0737951815192379 5.3730464906667548 127 132 110 1.261279931135207 15 1233 18 1132 22 1474 11 1184
5760 -2.6538509538830568 0.70132323722699441 5.3940568598345822 64 68 43 0.043825831618334504 3 887 5 1183
673 -2.6033872441651766 0.77848574243675317 6.2666453225785164 161 162 122 0.39501930418807196 18 1124 24 1797
5759 -3.1496361554902075 1.0140114820119366 5.7009548537624077 147 150 126 1.7455720519110898 7 1065 5 1178 8 641
672 -2.5712603026517504 0.76557265932097718 6.350590768263169 94 92 40 1.7923893755937279 12 703 18 1122 22 1758 23 699 23 1540 9 854 14 1143 20 903
5758 -2.1289081311026901 1.4109627656305814 4.3889686193306492 180 146 0 0.7639078682325926 1 342 5 1126
671 -3.411211967286778 0.86637794023313963 5.7652672022755889 159 168 141 1.4248177702791212 12 1087 18 1121 19 1006 9 1170 11 770 17 697 14 1003 13 939 20 976 21 1023 10 1247
5757 -2.5023709186279599 1.8899635564495663 5.1403629616465887 83 49 14 1.6100930692482989 7 690 5 1120 8 635
670 -4.1103711012000304 0.93620499021925752 5.9695412687622582 179 141 0 0.5276140465041691 12 688 15 1153 18 1114
5756 -2.3022703499457098 0.52595567684203648 6.6188899570607278 143 147 120 0.6970009912571824 2 781 5 1119
669 -2.6566634624670309 0.81490381634604059 6.2332103587151835 95 77 11 0.81728826826570911 12 1052 18 1112 22 1789 9 1035
5754 -3.2425460171928755 1.3377211068365125 5.4521067206443643 185 146 0 1.847826262927714 6 828 5 1112
667 -4.7574897800538665 0.86465517168302397 6.0568512980500735 131 125 47 2.1685847550652615 15 718 18 1109 24 1811 22 1690 23 1427 9 1166 11 922
5753 -2.3743279273717022 0.52832805222317447 6.4966721399919436 138 140 118 0.29369594939971194 7 930 5 1105
666 -3.1394314501278342 0.70655020632819698 6.2774788458644109 137 136 115 0.43956451810961128 12 664 18 1104 14 986
5752 -2.6872064769445569 0.76333074156098923 6.2824689303720866 125 129 104 0.66985511082393923 1 899 5 1096
665 -2.6571773122893863 0.7008280547613166 6.3142044048156007 184 188 161 0.94364808163032921 12 952 18 1102 23 1581 19 1081 17 744 14 489 24 987 13 789 20 971
5751 -3.9208622815212615 2.028334439820219 4.7483234681846929 104 70 19 0.1925148583025022 2 605 5 1076
664 -2.402155285621594 0.68550638128087549 6.5246134947331722 94 91 58 1.8162008223847574 15 1202 18 1097 23 1573 13 989
5750 -4.1431569511454969 1.1502500473530364 5.7912349800807181 149 138 93 1.9427852152059077 2 504 7 764 5 1060
663 -4.7096338501660515 0.8796501405920818 5.9213691329273344 128 124 52 1.8972536086884133 15 717 18 1087 21 998 25 778 27 1052
659 -2.7627442125839181 0.96374173040886435 6.095180460309285 236 207 43 1.78746305893699 12 883 18 1048 9 1021 11 890 24 778
657 -3.1401420590260503 1.8990282676976245 4.9323466620856697 14 4 0 1.5614306646845588 15 1060 18 1045 20 1347
5742 -4.1075278766275662 1.1555601386236332 5.1984899188652127 180 179 155 1.0807940011868944 7 481 5 979 8 576
655 -4.520191141886353 1.5868679953376759 4.6318788451028077 166 173 142 0.42330604357793344 12 765 15 1446 18 1039
5741 -8.8160459477338033 4.1025830188486108 6.7763719678473953 77 79 55 0.11841881837615775 4 758 5 972
654 -3.2302887179351005 1.5339360570653113 5.0585230062972713 239 211 40 0.21112390440637321 12 1123 18 1038 24 634 22 576 9 908 14 881 13 701
5740 -5.7425740296427774 2.5750046602650154 7.9660301907060722 0 0 0 0.36297863789090418 4 820 7 446
653 -3.1852265071795443 1.5319424791963412 5.0373944607680921 187 152 0 1.2740777069599702 12 1122 18 1037 13 713 14 886
5739 -4.1042307456342266 1.5667944846041924 4.6785829619008776 163 158 114 0.084835178756956092 4 819 5 952
652 -4.2536877399710438 1.547847505817924 4.5923271335185731 144 150 120 0.711505241956916 15 1116 18 1034 24 825 22 675 23 748 19 976 17 888 20 1181
5736 -15.314292657686279 8.2751500885470417 16.913010342866009 125 131 103 1.6439274930997185 16 1249 5 930
649 -4.3890892936504073 1.4964881467893052 4.8037053675626149 170 176 146 1.8705802343239588 12 1217 18 1027 24 2110 18 1478 19 1710 17 667 14 1337 23 1788 20 852
5735 -4.3645545000093957 1.5857816814536339 4.8276467324200869 108 90 15 0.29636727548088565 7 805 5 912 8 795
648 -5.00721221253949 1.697172689038809 4.2531131953359109 116 118 94 1.6325154436920006 12 791 15 922 18 1019 9 1355 14 884 20 1180 21 1413 27 1137
5734 -5.030171266750485 2.1058486487947565 4.262507592516978 155 152 127 1.3462125709383246 7 800 43 1314
647 -4.1026270521698267 1.6707373191968609 4.722722327276788 230 205 55 0.84841321361529021 15 383 18 1018 24 381 22 570 19 546 23 331
5733 -5.0118282118593385 2.0858206817860827 5.3875059255406006 159 163 128 1.3107718160081738 2 697 8 768
646 -4.1296925586936366 1.6667035772333498 4.7569164839379399 147 115 1 1.1708154412876568 15 929 18 1017
5732 -7.638299001147506 3.6026694855984305 6.1764926332764345 0 0 0 0.16490222388104281 4 585 7 740
645 -4.6833095584990128 1.6604740532614382 4.4636626528759944 158 162 134 0.60499222636459404 15 1459 18 1010 24 2184 14 1399 22 1924
5729 -7.1078927325825347 3.045313341844305 8.4683220644916659 123 132 105 1.4892345192611667 4 864 5 877
5727 -4.8774449419111487 1.7542969899991123 6.9199304610479002 77 81 54 0.64158125602938476 16 1074 5 874
640 -3.3955302621079335 1.5645948875611302 5.1778540449923538 177 137 0 1.0218303921691922 12 1107 18 1001 24 2023 23 1895 19 1639 14 1269 16 846
5725 -6.5229951906268528 2.7118720027892813 7.4397671908090857 39 48 19 0.68185513428358835 7 510 8 799
638 -3.8588604228022065 1.3620816897180332 4.9349542789453498 39 42 14 2.8195469276190224 15 906 18 996
637 -3.4626397426477311 1.3020646449201667 5.3959344236911813 115 84 0 0.97192105596254941 15 913 18 990 24 707 22 649 19 524 9 936 11 700 17 899 14 701 13 623 20 633 21 828 25 729 27 669 26 474 10 473 16 406 28 633 6 374 3 542 1 337 2 264 4 405 7 295 29 580 38 579 40 536 34 554 35 735 37 474
636 -4.3442471252629806 1.3296419422517594 4.9719576012061122 168 161 93 1.3360948328851232 12 1030 18 985 14 655 13 346
5722 -9.7656983018503691 4.7212687298144997 7.4200755191568897 71 61 13 1.4838212910644049 7 893 5 854
635 -4.0307216758882722 1.2887900913394224 5.1838429513482014 129 131 107 0.33422109233612263 12 871 18 983 14 711 13 936
5721 -2.9071916894815155 1.8315779212961858 5.5157770648528892 84 35 18 0.48347322391031827 7 539 5 831 8 428
634 -4.1274436880310308 1.2837449579662508 5.0701505113758678 142 146 113 0.67475586080542382 12 822 18 982 24 763 9 988 11 811 17 1071 13 887 20 1043 21 1113 25 1218
5720 -4.7975378153172565 1.8886664372654096 5.6214548811498997 0 0 0 0.46247669279361459 2 707 16 1269
633 -3.7016906373597753 1.2744622052985817 5.1283571022890033 178 176 145 1.6899530343109002 15 916 18 980 24 2325
5719 -3.162935981630139 0.78176704790961438 4.1625681359402318 0 0 0 1.035699917192243 2 495 7 743
632 -4.0273658388703168 1.3369749600532661 5.1206347599113329 167 173 139 0.74669495820224441 15 1131 18 978 22 2082
5718 -3.7296289817957846 1.1790463137500364 5.1302532513894938 88 92 67 0.31735187340606702 7 784 5 818 8 464
631 -4.0967100020271925 1.4606272124498316 4.7704111152672821 152 157 127 1.0328942386564379 12 783 18 972 24 1543 22 657 23 730 9 731 11 698 17 904 14 1256 13 668 20 851 21 1120 27 1343
629 -4.3736547249664399 1.414143886244424 4.9264873760923837 124 126 86 1.0651305297712872 12 1165 15 1414 18 961 9 1362
5715 -3.256290066750577 1.6733819026667931 5.7583981314236814 69 71 60 1.1506499307800999 7 546 5 721 8 402
628 -2.490538295039693 2.173813268418662 4.5847992649096669 102 4 1 0.58269335128359501 15 864 18 952 24 1348
5714 -3.1045708757826671 1.5661136599315388 5.5639522226236178 52 33 0 0.085788606885405586 7 575 5 720 8 595
627 -3.8552528051095534 2.1650375537762283 4.5134089556869359 205 186 143 1.0355605343048808 12 732 18 948 13 589
5713 -11.092672381371301 6.095263143460973 15.036902925221908 0 0 0 1.709832071654076 4 1039 16 1275
626 -2.3337632634827346 2.1166731046117335 4.7952518121821015 167 70 65 1.7988735445108528 15 1020 18 945 9 618 13 581 12 1246
5711 -3.2733140078559027 1.5080441831792715 5.6876566382918678 162 139 47 1.2331356994814915 7 971 5 700
624 -3.7683307795247334 2.1194399288830064 4.5673174075634524 201 186 146 1.7033675029824697 15 1026 22 1113 9 839 12 1331 14 863 18 940 13 1010
5710 -2.1944414697604677 2.0261025225499085 4.9047436668371152 132 56 53 0.57391098933514684 7 665 5 690 8 623
623 -3.7479288903596202 2.104342723278545 4.5959327574208038 205 185 148 1.1907553469465613 15 1337 18 936 19 1515 9 1313 17 1370 14 1361 13 1011 16 1207
5709 -2.2206549364886543 2.1582359303272867 4.9583398425195613 149 52 46 0.25935590684763704 7 583 5 688 8 622
622 -3.3333011581227501 1.7691232973262416 2.9729419460841604 0 0 0 1.6019721746133853 12 774 15 1025
5708 -3.3184238404272395 1.3223645556665868 5.3369937738253252 193 162 0 1.456162704300193 1 556 5 679 8 689
621 -4.3464808216121149 2.1488351238884964 4.5335059574613901 69 36 0 2.0414963141024369 12 1251 15 878 18 933 9 971 11 789
5706 -4.1129545691111034 1.7142364665165972 4.7602252809478669 161 120 15 0.82333976939577957 4 1007 7 441 5 674 8 504
619 -7.8147853859393193 0.4332127772744031 7.205917572059672 19 18 8 1.8861207770360691 15 1114 18 924 24 1990 22 1092 19 676 13 347
5705 -2.1000360534607023 1.1559636274019609 6.2075741975922814 176 151 73 0.47338556275654126 7 554 5 665 8 303
618 -2.6460132212407168 2.3975141401498856 4.7724603707940094 54 4 0 1.5057183999028236 18 919 22 1177 18 1479
5704 -2.5622684492086578 1.8884826973733146 5.2117752223692717 85 72 55 1.0309325080770411 7 689 5 658 8 1026
617 -2.4911622197235186 2.3351963990238067 4.7328056222118615 146 66 59 0.90925315773498661 12 1295 18 915 14 1379
614 -3.2863029671081798 1.8346213133908806 5.1301236565421924 18 2 0 1.0966518984841989 18 908 24 1204 22 1985 23 966 11 802 14 813 13 423 20 749
5700 -2.3516767033661656 1.876602609127068 4.9888739227936982 120 70 35 0.77801000503030238 7 1122 5 649 8 424
613 -2.6967109108186977 1.8025281085269262 4.6497769697839813 230 208 37 0.4397099670671632 12 891 18 907 14 1233 13 1042 22 1944
5699 -2.3717186690288656 1.928034663030354 5.0371436678502404 90 37 19 0.5329394919172189 7 667 5 648 8 630
612 -3.9621605919653344 1.817316837072336 4.4048161818388403 201 160 0 1.8198578123330214 18 905 9 455 12 564 11 440 17 906 14 591 25 1063 27 1219
5698 -2.0351241725345743 0.12154431084104537 3.3297742192207753 82 76 30 1.3047155623961322 7 749 8 900
611 -4.3110058744794388 1.8166948642985048 4.3638233352421381 188 154 0 1.6944687832070173 12 866 18 904 9 451 17 611 14 906 13 557 20 878 21 1151 27 711 27 1235 26 1197 38 1255
5697 -3.9224833500683389 1.0625723753761434 5.2939803932153744 149 155 129 1.8318619203039448 4 609 5 634 8 897
610 -3.3974651059134917 1.7796359383956113 5.2134950699265961 18 4 0 0.56399326745147038 12 604 15 852 18 903 14 640 13 421 20 741 21 755
5696 -7.7535004826244034 3.485409365736579 6.2697598563599115 152 153 113 0.3396858222398601 4 712 8 898
609 -2.478853275904314 1.7522192696283665 4.8063851468799701 220 199 53 0.50404262850212744 12 1058 18 902 14 1179
5695 -4.781341435964185 1.8173769315578787 4.0614318556108779 123 122 96 0.85894817537848622 7 535 5 629 43 672
608 -2.2558483651242649 2.066203626032594 4.8739000023359216 87 3 0 0.81420229875674632 18 900 24 1314 22 1105 23 1085
5693 -9.7366048176990176 5.1048031872613038 6.7112958465341706 163 164 133 1.5893969258345555 7 579 5 597
606 -2.6068319008306498 1.7020124160973664 4.887128400988173 180 147 0 1.9325276221498537 15 847 18 896 22 531 19 776 14 907
5692 -2.868869064077058 -0.16544793705180671 4.8417273975655597 172 130 0 0.42509827614951573 7 824 8 833
605 -4.167465121133473 1.7320821196517711 4.5563325306133606 231 188 21 2.1990387215867484 15 851 18 893 24 623 20 1060 17 834 21 721 25 1095
5691 -4.4353767720293291 0.39317870069935895 6.2376959361919377 212 188 19 2.3567296008143517 7 870 5 592 8 618 4 352
604 -4.1506482270670286 1.7287317537487266 4.5301564816127611 191 148 0 1.3094429318844145 12 793 18 891 9 888 11 589 17 840 14 599 13 576 20 1218 25 1100 27 1228 26 1336 38 997
603 -4.6946024468890899 1.7272860228768645 4.6430293479500699 127 136 110 1.9414840796984336 12 817 24 2179
5689 -6.0970036150922358 2.4083433031826296 5.7342336560898248 94 93 47 1.0793102452077159 3 439 5 569
602 -3.2681255960112723 2.1073964699853112 5.2588645496737012 61 15 2 1.0393297471154057 12 730 18 887 24 1179 22 595 19 787 9 812 11 600 17 620 20 593 21 1309 25 986 27 769 26 1298
5688 -4.798667191278688 1.7265885196401618 4.4397008215217557 160 164 140 0.021463729559942281 4 558 5 567
601 -2.2415219295389046 2.0542442093761428 4.8794081970615277 80 7 1 1.1294216489450388 15 1035 18 886 24 1313 23 1187 9 629 10 903
5687 -4.1644259811741229 1.1494481242273795 5.2543102917960338 138 138 114 0.11968561215825775 7 880 5 561 8 524
600 -6.2380718414696892 2.1283082784162368 4.8792127194688506 165 158 139 1.6385527237747199 12 1336 18 883 11 804 14 1362
5686 -4.0161138670653793 0.87829045869981026 6.0921580273065574 171 139 26 0.28983959589127717 7 913 5 558 8 364
599 -4.5647921927242461 2.0413848754626707 4.6549112952078611 63 40 5 1.1653106984677182 15 786 18 879 24 2167
5684 -2.4512560220902531 0.38719642184282926 6.8971490930947459 189 187 162 1.371269391666426 7 613 5 541 8 650
597 -2.9974977585887963 1.9700162549245026 4.9260324491304166 20 7 0 0.61911209484148055 12 581 18 873 24 1171 9 595 17 755 14 637 20 721 21 1369
5683 -2.4692462419767995 0.36405953289367043 6.9019223514463137 189 187 164 0.28785786047297363 7 622 5 533 8 653
596 -3.0082043356197694 1.9579402807381334 4.9445276271603564 138 125 52 1.0412627571284261 15 837 18 872 24 1169 12 1303 22 1939 19 1513 23 415 9 872 11 831 17 754 14 1209 13 848
5682 -3.1464498900610525 1.0143922736625866 5.6536327319201174 76 71 41 1.5549234005153167 7 602 5 532 8 1103
595 -2.3412692451037618 1.9008123260871745 4.8905220255595978 160 20 25 1.5500600682512167 12 724 18 870 22 1954 13 850
5681 -2.9124179841328326 0.77635830531250893 6.1684663416942289 165 160 131 0.40005952374086573 7 616 5 531 8 655
594 -4.5144040016863141 0.64041501313115645 5.8470890663540596 230 196 26 2.0897965045721381 12 555 18 865 9 1156
5680 -4.9502138605425507 1.8124422543590433 9.4604120842487784 136 136 113 0.23769528141589091 4 847 8 666
593 -2.5283936143772525 0.45095302064393222 6.7823505702776661 171 174 147 1.2957673279916238 12 1266 18 864 22 864 9 1125 11 682 25 540 27 908 26 688 38 542
592 -8.2184981501727705 0.50192042963187655 7.0157694020037518 99 99 89 2.1001971243527238 12 955 18 863 24 939 22 1054 23 811 14 946
5678 -2.4428396110682473 0.55938866303589108 6.5722177014567569 189 188 168 0.40856431991149378 7 633 5 521
591 -8.1610660135103252 0.53627045638174597 6.8186223221510778 83 83 75 1.2763089718594964 12 677 18 861 14 1301
590 -7.8991827723888965 0.49799645237352219 7.048000343470016 21 21 11 1.3572155972524325 12 550 15 412 18 860 24 2006 23 1643 9 423 11 527 14 568 22 1064
5676 -3.4838716963463057 1.4924189917743362 5.1281444923337647 105 83 20 1.5245850872026827 7 491 5 516 8 671
589 -7.8666970003833736 0.47520977134101394 7.1014441920793017 15 16 8 1.3278784916473028 15 424 18 856 14 780
5674 -3.499594847391311 1.4012611051395882 5.8626444356797434 18 22 17 1.3800025750914204 7 656 5 509 8 694 43 802
587 -8.1255153956034363 0.63110708446550479 6.7598410288185971 18 18 9 2.0346842787890398 15 418 18 839 24 893 9 766 17 294 20 306
5673 -6.7792794341240734 3.2671622717023907 11.357233511550614 152 155 133 2.1416567898623713 7 610 5 506
586 -8.0587850375039611 0.56384257429712059 6.92747769587963 23 20 11 0.60665312039343311 12 671 18 831
5671 -4.2940242689590598 1.908425897687936 4.3779187132208826 228 184 15 2.3084304591910687 3 1014 5 497
584 -8.2038165882181353 0.55741562546347123 6.918786939513045 125 125 117 1.2417742130365463 12 872 18 828 14 776
5670 -3.391679372777975 0.92775316272166031 5.8653934582909644 93 102 75 0.81188680664228685 4 506 7 1034 5 492 8 781
583 -8.0709303797798793 0.54633363429187154 6.9584743778663904 120 120 110 1.4869398860608669 15 346 18 826
5669 -3.3970525069032962 0.91704765672368882 5.8827710856155555 143 151 127 1.7200436058031043 4 781 7 1045 5 491
582 -7.2532890985280378 -0.012958426966673202 7.9099100072385182 16 15 10 1.6011662120858674 15 766 22 1025 24 1378 9 957 18 819
581 -7.9672339331097533 0.095610581786914103 7.3421310311235741 79 83 69 0.81874799591628478 15 763 24 1057 23 1267
5666 -3.1728129907913325 0.94492613061927744 5.7468582084316466 124 128 105 0.37504473416756245 7 454 5 467 8 491
579 -4.4741945694641769 0.4982793437611745 6.0294519214740614 169 128 0 0.4855290020279438 12 507 18 799 9 710 14 977 13 862
5665 -3.3012373201485214 1.0116091698307941 5.8185694391385514 178 181 160 0.72757300399473479 7 448 5 462 8 495
578 -7.5896703372629721 0.31462155092012611 7.3783408364397891 109 110 97 1.0740320860018886 12 520 18 795 22 411 24 1903
5662 -2.4561256072847453 0.61692105188837909 6.4416923139610782 177 180 153 0.60124903467979096 7 399 5 442
575 -4.685773033317723 0.40632350859373201 6.1960221156288204 218 189 49 1.9148920821520008 15 1331 18 787 24 898 22 849 23 474 19 753 10 694 16 557 40 759 34 616 39 868 35 887
574 -7.3002038524506823 0.16129244978451909 7.7571206237284125 28 26 14 1.452352297539601 12 994 15 575 18 784 22 1196 24 1250 23 1202
5660 -4.0133366430381709 2.0066589642649171 4.2061424597642771 150 106 0 0.054244193413175622 4 301 5 435
573 -7.1950290555076402 0.07168457144840025 7.8716014242162231 21 21 13 0.92058505504750976 12 748 15 760 18 780 24 1077 22 515 23 1295 9 559 14 531 13 860
5658 -3.4791220959146743 1.3743678970341278 5.8259565127035007 117 102 38 1.2069502932977765 7 921 5 428 8 438
571 -3.2708912029460184 1.0507502132332847 5.4923768079503308 81 76 46 1.6732499191973269 15 557 18 774 22 1494 11 986
5657 -2.6855817631051293 0.68745089558747929 6.4705810322372326 216 188 64 0.38452150726751017 7 660 5 427 8 439
5656 -2.7572585669099854 0.69058730973144877 6.3169869995265513 81 63 0 0.5625004126443609 7 608 5 422 8 435
569 -2.7084000911073702 0.95485114729496867 6.0986045772872961 151 115 0 0.82655448287185962 12 498 15 1155 18 769 9 1020 11 496
568 -3.8944812269842068 1.0319165737290974 5.4020622749738134 165 169 146 1.73729053303513 15 1161 18 763 24 806 20 961 21 559 25 573 27 862
5654 -4.2390156588223382 1.898568665667504 4.977597076644555 56 28 7 0.46726445522564392 7 1026 5 418 8 325
567 -2.4736197996713818 -0.068296753122343082 15.067883708637423 37 46 19 0.75551612249389311 12 1208 18 762
5653 -3.1273593186503548 0.98767707119508608 5.6453381860314265 116 116 90 0.72034166061678417 7 620 5 417 8 349
566 -3.2424525235415746 0.97995801761852219 5.5947400651321626 75 77 56 1.4399861416521595 12 467 18 760 24 2242 22 937 23 2147 11 484 14 380 13 359
5652 -2.9633761121780049 1.9419331132645643 5.2237456934570723 182 147 0 2.0404794568484359 7 376 5 404
565 -3.7010344450487307 0.99887478836429233 5.5732286119218539 133 141 118 1.4377303993989565 15 1157 18 758 22 1545
563 -3.6606071025041889 1.2512254367745759 5.0821427698865698 179 177 143 0.42469189150987768 15 996 18 753 22 1592 9 1091 11 1131 14 719
5649 -3.2680575773620983 1.4581463633162908 5.6928114900931206 16 24 27 1.611926046379027 7 977 5 386 8 948
562 -4.1865554031557197 1.2430072111325532 5.1338139564521601 182 170 112 0.40167497934644036 15 732 18 750 9 700 11 735 24 741
5647 -4.2577552309876223 1.1499599648186827 5.6860289633126895 166 154 84 2.5967660566805613 7 344 5 370
560 -3.7042264943650802 1.1184143048109481 5.2837184529237922 170 175 153 1.0973987972066594 15 1130 18 738 9 503 17 724
5646 -4.3635638078389434 0.46461274710587108 6.1976160623686223 167 134 21 1.0148966604120737 7 335 5 364 8 299
559 -2.5733110631123752 1.0098439434432762 6.0930592414212592 233 195 26 1.4873294872326122 15 1162 18 737 22 1388 23 659 19 1142 9 1095 16 1261
5644 -2.607564890263359 2.1061192440199266 5.3494961797412826 114 55 37 1.9402518240989133 2 505 5 356
557 -3.5701606846598182 0.85685488513845876 5.7305814006351925 159 163 138 1.8099478033580023 12 663 18 730 11 762 14 492 13 941
5643 -3.1521964948714425 0.96501200013036847 5.6304421298676299 163 166 139 0.68239934352275344 7 258 5 345 8 354
556 -3.5419527074385115 0.84444478152628011 5.7190909683370119 162 166 141 1.7040563399381916 12 881 15 537 18 727 24 1788 9 440 11 559 14 410 14 994 13 393
5642 -3.1000199595235793 0.87348512358462171 5.9927167745220196 201 199 174 0.34733531370943838 7 304 5 321
555 -3.2554489311511023 0.78395117800797309 6.1339853759691296 161 165 138 1.9984127703913301 15 1248 18 726 17 984 21 562 25 810 11 1003
5641 -3.0904562281491974 1.4498222708998429 5.4786622196484434 162 126 0 1.8138093339861248 7 979 5 319 8 244
554 -3.5037146958551335 0.80620015515470855 5.7712920814287063 139 141 117 0.68647004602321116 12 927 15 720 18 720 24 688 9 752 17 989 14 1047 13 950 20 780 27 1046
5639 -2.1593586309703015 0.51171956682236885 6.6543310210262572 141 141 115 0.71304322483064919 7 563 5 309 8 318
552 -2.2282441138497466 0.59344873153113842 6.7237748584055268 94 91 58 2.1071730971517786 12 915 18 715 22 1683 23 1559 19 1049 9 1165
5638 -2.4094052671390469 0.81571985561959759 6.3224183418586559 238 206 46 0.3272298558643954 7 287 5 305 8 311
551 -2.5493951192360833 0.87849741374238988 6.2465334853199597 163 120 0 1.4306733388204453 15 1150 18 706 11 732 17 877 20 783 21 524 26 799
5637 -2.2973510569209354 1.8535587640104225 4.9358454346279412 135 72 62 0.5137126612676749 7 382 5 298 8 421
550 -3.3817596716980871 0.94423456113109416 5.6267198519633874 166 170 145 1.0183391548112017 12 702 15 1255 18 703 24 785 9 512 11 488 17 739
5636 -4.113189952375655 2.0506119022198233 4.1889882570353469 222 188 19 0.40408136667835609 7 396 5 295 8 440
549 -4.0726982692262865 0.88070924702574904 6.0671881409843555 235 199 27 1.6328300298280138 12 683 18 701 22 1829 24 2460
5635 -3.7859674924630626 1.3025401711917306 4.9863804691178784 165 166 135 0.4892264779468265 7 205 5 279 8 327
548 -2.4339356777844174 0.78299471314414903 6.4738228817264281 209 198 164 0.97592541674655631 12 691 18 700 24 1796 23 1530 13 906
5634 -3.3621154633741148 0.92597140925847443 5.8639663863496105 153 159 133 0.46286769784766518 4 330 5 278 8 332
547 -3.019361799829027 0.84217317982558182 5.9822600833693365 141 145 120 0.15317857961900452 12 1064 18 693 14 982
5633 -3.9447741696139405 1.6454041386932545 4.3687396678101091 230 190 15 0.21203187040501942 3 215 43 914
546 -3.7178591509305527 0.89965882070692804 5.5727279893526598 191 189 168 1.8525903438322986 12 932 18 688 24 994 22 1786 11 919 15 709 17 1027 20 945 21 571
5632 -3.4400108776458951 1.016122847464511 7.5398385741466187 166 170 147 0.39408530530232028 2 286 5 272
545 -3.5531223938747556 0.90482323126416053 5.6736576714449667 42 48 22 1.192830947368045 12 479 18 687 14 372
5631 -3.9846581418384166 1.2786919553525857 5.0788687722006003 151 156 124 0.33537949110578252 7 271 5 269 8 294
544 -4.5238510323301426 1.4628113728451606 4.7602283014488034 77 78 46 0.53207806123545209 12 616 18 684 14 455
5630 -3.7108747463688365 1.1144184515417315 5.2561407119257106 158 163 137 0.14340192071394692 7 225 5 246 8 292
543 -4.2632570244752568 1.5330366858172266 4.6865541627087621 185 190 157 1.3108480796173498 12 771 9 711 14 1245 13 738 20 1184 17 1215
5344 -3.8734211412129453 1.8084653227063221 4.4970436495798403 186 139 0 0.70058975791342781 2 278 4 258 5 238 8 212
257 -3.4065089358561487 1.2836073788821698 5.4927366521034022 131 100 0 2.1011352479381169 15 1388 18 986 12 1182 22 1586 19 1680 9 1376 13 1023
2614 -3.070477858690182 1.5100078565754671 6.1750041320285254 196 158 0 2.1868975586230146 22 663 17 862
5343 -2.5185041389571903 0.86765527004920118 6.5711943119459315 92 82 57 1.049199172805986 2 276 4 255 5 306
256 -4.1969320965516657 1.3847653461386227 4.973546288375176 170 173 144 1.1601824234034095 12 1184 15 1412 18 1571 22 2070 19 1698
5341 -3.4355769008515797 0.931642667713378 5.6370166324314477 40 40 14 0.60648056767217728 2 209 4 236 7 227
254 -3.882954396430764 1.42200040546412 4.9689596996831904 179 184 152 2.2617917288861511 12 1176 18 968 24 1244 15 892 34 854
5339 -3.9885994334765411 0.94673289349097789 5.9944860301944356 182 142 0 0.72957824483227363 1 218 4 225 7 215 5 226
252 -3.7215075883619622 1.6179966024688179 5.426632751376065 114 93 44 1.704294009107882 12 1155 18 1351 24 2029 22 2144 20 1080
5338 -2.8008094984841239 1.0174880238263004 6.0496363096553951 63 42 16 1.0029954935302383 2 167 4 219 7 176
251 -3.6427887817300091 1.6558599460811372 5.3763243537218015 129 111 48 1.6195295742137295 12 1152 15 938 18 1622 24 2063 17 1177 20 1091 21 1138
5337 -2.48085580103551 0.84444340491523562 6.4439186457572406 85 73 40 0.394464201911912 2 211 4 217
250 -3.5740907976285614 1.6902293236034915 5.3659490408193422 138 114 42 1.9154998582181613 12 1150 15 625 18 890 22 1916 21 1190
5335 -4.0769129417097627 1.2784438232042716 5.1524126645525676 63 69 35 1.2620970719683915 1 219 4 203 7 189 8 203
248 -3.431725587421071 1.753588537380409 5.2504862520134603 139 121 42 1.4499111230115895 12 1143 15 979 18 901 24 2226 22 1877 23 559 11 578 9 931 17 1361 13 866 21 1199 25 901 27 1271 10 1431 26 1086
5334 -4.5641686281869553 1.7196334683125172 4.3727603517964182 92 97 74 1.4619488855685299 1 177 4 201 7 188 5 201 8 202
247 -4.9967866491873902 1.6793371564881692 4.2710467881237282 128 129 107 0.68387458260438161 12 1121 15 924 18 1013 24 628 22 997 19 842 9 880 11 1030 17 1262 14 954 20 1294 21 1050 25 1489 27 918
5333 -4.3663443696253355 1.5637692387665991 4.5928979262365237 225 195 11 0.10420671285842728 2 153 4 194
246 -4.2548027545103384 1.6551847121223053 4.5267784859102322 181 178 137 1.6619643085484137 12 1102 18 671 24 846 22 1855 23 1886 14 879
5332 -3.1330364316860044 0.86455164391768191 6.0329797167786801 49 51 27 0.65203556517346439 2 151 4 190 7 180 5 218 8 214
245 -4.356494066429053 1.632028201508765 2.5712439369809346 131 125 44 1.6769908272246954 12 1097 15 885
5331 -3.8052557690385238 1.8194224014390894 4.5383352694888135 151 108 4 0.35192338772863924 2 166 4 181 7 177
244 -4.0291576597507968 1.074764421003608 5.2410084029346686 149 138 85 0.50680498574543631 12 1095 15 1122 22 931 14 1133
5330 -3.694792873810862 1.1340198732628066 5.2686873156115803 150 154 131 0.60480578553416264 2 142 4 150 5 101 8 105
243 -2.9048842835671955 0.89376525193521406 6.0383261138563498 174 172 133 1.3509285645251352 12 1093 15 1394 23 705 9 1001 14 1401
5329 -3.8519992056692209 2.3608228227546424 4.7186233925106897 120 103 69 1.1183124565937705 1 128 3 135 4 149 7 199 5 213 8 216 43 240 44 202 46 248
242 -4.0554033237760541 1.0782033246195413 5.2741769850387747 224 194 46 1.7416824639084532 12 1089 15 1166 24 2287
2599 -2.3063284689066932 1.9284659439239558 4.9069611779086113 75 1 1 1.0125707769610002 9 832 11 572 17 759 14 1214 20 606
5327 -2.8826482164527074 1.8365797028431476 4.7967636293173124 213 193 2 1.3688778873187502 1 104 2 106 4 121 7 126 5 138 8 164
240 -3.2208862284213757 1.0233513101920291 5.5507265023303827 79 76 40 1.0289984167270005 12 1084 15 754 18 1138 22 1510 19 1122
5326 -4.5377400463014874 1.6223685112991564 4.5698663953389413 142 148 122 0.46018487859035501 1 93 4 117 7 104
239 -3.0667682207368046 0.9742952942891302 5.8388077375492911 173 173 147 1.0765055639353094 12 1079 15 1127 18 764 9 1007 17 1127 14 1111
5325 -3.8879988539313457 0.96702735545161445 5.9394707403139115 218 186 1 0.7015989884413496 2 104 4 116 7 102 5 105 8 99
238 -3.3309368237160415 1.0858605673386286 5.4054072537469322 95 92 57 0.51639326355905846 12 1075 15 747 18 734 14 1413
5324 -4.014066940588414 0.88864755664588879 6.0414543714670694 227 193 6 1.3509299034390325 2 160 4 114 7 90 5 146 8 141
237 -3.30948209091413 0.92983393812597348 5.5701852034586157 130 135 112 0.6531263414091879 12 1067 15 1256 22 2185 9 1181 11 1008 17 981 14 996 20 1421 21 1465 25 805 27 997
5323 -3.83427494163797 1.3092959802836632 5.0436323831467176 147 155 125 1.2725761552797179 2 100 4 107 7 134 5 153 8 152
236 -4.6453568708996587 0.92517347273504957 5.9841672850490362 4 28 0 1.6446969508941127 12 1062 15 1243 22 1804
5322 -3.7987397067628215 1.8500897861013268 4.4673062811825215 221 187 1 0.33462160819464942 2 122 4 102 7 114 5 125 8 113
235 -4.6614935859321269 0.90659555904078148 5.9813197486254621 133 120 37 1.7959207813055365 12 1054 15 535 18 1062 14 925 20 776 13 677
5321 -4.6016021352321959 2.1432044820557086 4.3796783119773259 126 118 95 0.48316900599216894 2 75 4 99 7 147
234 -3.710312320722907 1.2324216869395141 5.1286561189984283 185 189 166 1.7449371487200054 15 993 22 705 19 1782 14 1118 12 1043 20 1040 25 1197
5320 -2.4597921046775584 0.88919355986480231 6.4911288819291926 86 75 47 1.1425466252233503 2 91 4 88 7 71 5 42
233 -3.39896339991384 1.1047459228255541 5.3957327410114377 173 174 143 1.5265453417233834 12 1019 18 1292 9 1449
5319 -4.5124288621818209 1.9694759056443079 4.3983257242236364 53 45 26 0.68962627746428362 2 55 4 72 7 108
232 -3.3970813653687109 1.1196308539843096 5.3475127683275412 100 96 59 0.44288068488203702 12 1014 18 1145 9 695
5318 -4.6097739885274072 0.52301674809714216 6.073869951804304 215 185 1 0.91991655975433417 1 57 2 38 3 64 4 69 7 70 5 74 8 70
231 -3.904824411219503 1.1514562176965524 5.2592173914808287 180 185 163 1.1246496744466963 12 1010 23 2079 19 1130 14 1090 10 1270 3 749
5317 -4.3295636808403808 0.96265422061626438 5.768440582842211 163 116 0 1.4734704480051188 2 39 4 56 7 68 5 58 8 55 43 133 41 131 44 138 46 180 45 174 42 101 32 140 33 129 30 80
230 -3.546034061053299 1.133363151040585 5.3016511551853567 172 174 150 1.7441799913239233 12 1009 22 900 23 2046 11 547 14 1343 21 969
5316 -2.5857515692603226 1.4317777895178494 4.6418836118969269 214 191 1 1.6791188123731562 16 64 5 51 8 47
229 -3.4430983220070455 1.1344953215654621 5.3398193568809686 177 176 145 1.3590315637113071 15 745 18 1532 24 2239
5315 -2.5094297374332828 2.1733982287112448 4.6145984242265552 95 6 8 1.6375151881315044 4 38 7 89 5 112 8 111 41 144 43 146 6 65 46 188 45 225 32 92 36 103 33 101
228 -3.1167554789259961 1.0582139621718916 5.694510519063634 74 68 20 1.4726942333801898 12 1006 15 750 18 1151 24 794 19 1108 13 696 1 658 5 1217 8 1093
2585 -4.0465263840443066 1.4894937804190742 4.8292237034414756 88 87 56 0.67462210113198395 17 662 13 737 20 627
5314 -4.1327481095179666 2.0336946663181084 4.9953542957966688 60 37 19 1.2471906293202948 1 32 2 16 4 29 8 23
227 -3.5129486997526724 1.1690330017484261 5.2725377947496517 174 173 142 1.3324107327833059 12 1002 18 1525
5313 -3.8273515815382315 2.0992308187844024 5.0412901072587637 186 178 155 1.240329510303495 1 13 2 13 4 15 7 14
226 -2.2137781252552515 0.98593120660292266 6.110705071451549 215 183 23 1.6039312430027168 12 1001 15 1163 18 736 24 802 9 538 11 747 17 860 14 723 13 493 20 513 21 807 25 731 27 660
225 -6.8051140237259391 0.83166362090870016 7.177164281562054 162 157 137 1.5844323030902299 12 999 15 548 24 1608 22 1714 23 1469 19 1766 16 356 10 344 6 326 1 436 3 312 8 540
224 -7.9230520065434042 0.53389758672934473 6.902243064128367 101 104 93 2.1058873541275651 15 1301 9 289 12 998 13 314 13 957 11 340
5308 -2.7119543272937734 0.4073572335403331 4.1789833480279714 156 161 138 0.073357672854070771 1 745 4 856
221 -2.3256940967005746 0.49180781294080328 6.6870012542631034 151 149 124 0.76206147238498567 12 991 15 801 11 749 17 589
5306 -2.5466018842612059 0.59881316261453954 6.5297495084425146 146 150 125 2.0551433228946618 1 79 2 58 4 78 7 54 5 62 8 57
219 -4.3892961379069968 0.72749283526455255 5.9472379156186035 200 175 23 1.6560054448500718 12 986 15 1195 18 1290 14 1060 24 1642
5305 -3.204236256152889 1.6725857006865505 5.0590148700601167 208 189 0 1.1547035473829652 2 50 4 42 5 50 8 42
218 -2.4201523667540257 0.52585233995519332 6.6932502491155628 163 167 144 0.96582961580577387 12 984 15 1179 18 541 24 1042 22 858 9 748 11 550 17 584
5303 -2.1541314576609731 1.0513419176283003 6.1464656906083368 155 115 8 1.850260948024258 3 131 1 122 2 129 6 119 3 127 1 112 7 125 8 188 5 142
216 -4.4562398749861201 0.75629401894805415 5.7820316859925862 244 209 67 1.214747795871798 12 976 18 1297 14 1063
214 -4.298149162780919 0.68249565871381701 6.0182355395340563 203 178 8 2.0179135368277423 12 954 15 1208 22 1732 11 952
5300 -2.0017018563878142 0.24814653773145301 4.7935735493287499 82 84 45 0.32330971781963047 1 894 4 1058
213 -3.6683012231304946 0.8725163649502794 5.6534478271018154 189 189 169 0.43140337632850434 12 951 15 533
5299 -3.3863911671753133 1.2168105018186379 6.3787411341523885 167 173 147 0.06745047394965592 3 883 43 816
212 -2.4372866687098589 0.6574434419814007 6.5019197448110244 161 164 137 2.1213367006096222 12 947 15 724 18 719 24 1781 22 805 23 1545 11 494 14 1010 34 798
5298 -3.3698825326502266 1.1670512997839284 7.9813108915187003 139 141 117 0.57096900903669145 3 642 4 1064
211 -4.9160905126147112 0.7886636210781256 6.1800327771009034 138 122 37 1.6772380629466308 12 946 15 547 18 1099 23 1455 19 1391 11 915 17 925 14 1018 13 546 20 419 21 425 27 565 26 961 10 1576
5297 -2.2808999728946091 0.99880357132245023 6.0498741252572064 171 130 0 0.65417478358712078 3 464 2 749
210 -3.5466719243239901 0.8206640948906806 5.7451939730578117 135 134 114 0.75045113540156938 12 925 15 1395 18 723 24 587 22 644 23 619 19 382 9 1193 11 756 17 986 14 1298 13 948 20 950 21 995 25 1144 27 1044 26 724 10 406 28 941 40 775 35 964
5296 -2.1979993230657251 0.55430823891425307 6.7227068753848114 139 137 112 0.57490405729511551 1 812 2 728 4 963
209 -2.2104193333419531 0.585543845422827 6.7034049844135648 103 97 61 1.9122541374714219 12 922 18 712 24 2427 23 1561 18 1294 14 985 9 1215
5295 -4.0587256739159141 2.2452747513235045 4.2766741014704452 142 108 14 1.3214572317662103 1 485 2 722 4 994 7 290 5 1070 8 605 43 2292
208 -3.1767097694406878 0.72503956100205968 6.1885993882808004 148 146 121 0.88497495110867963 12 920 15 436 11 924 14 988 21 882 25 578
5294 -3.7744052569788047 1.8741472796389524 4.4433871110065333 205 167 24 1.7494658155903042 16 1182 2 720 7 1113
207 -3.228263192662483 0.74317378276123147 6.1344019144705397 144 142 119 0.52812986229798109 12 916 15 1189 18 1103 9 1205 21 1437
5293 -4.0731806565618989 2.1796476450595952 4.2288095635600413 167 154 109 1.3193215935204754 1 494 2 715 4 944 7 966 8 938
206 -2.4617367731047883 2.3062396606888065 4.8111544213426374 146 67 60 0.68155791019198952 12 913 15 633 14 616
205 -2.6109930412370241 2.0741726250672792 4.6068199162314407 207 67 75 1.3043955410564521 12 906 15 1024 18 937 24 1268 22 1115 23 521 19 694 9 1328 11 485 17 632 14 1363 13 1006 20 884 21 741 10 1615
5290 -2.3006270918580491 0.30840927787498507 2.8528400947000461 89 92 66 0.54308996077078853 1 870 2 705 4 890
203 -3.3983307556480358 1.3811764478483586 5.2101714404629424 237 205 30 1.4425168631205616 12 900 15 890 9 494 11 480 17 657 14 692 13 734 23 633 20 617
5289 -3.5001871652760657 0.98481228068732485 5.617282821170277 68 71 44 0.026032738616666835 3 602 2 676
202 -4.458880242728271 0.74028729566727192 5.8259197869878978 206 181 41 2.0783049644464766 15 726 18 711 17 426 24 1640 34 885 24 1033
5287 -3.0844476439780242 0.93668963983151809 5.8235042738433247 178 183 155 0.57146504411908905 1 539 2 657 4 481 7 619
200 -2.1377124683853839 1.0849168480310158 6.1809300622735313 147 118 19 1.9404129007393627 12 870 23 1830 9 1370 11 1042 13 794 20 1156 16 1147 3 958 24 2300 4 387 7 541
5286 -2.9691414128257811 0.8791400785041984 5.995201485197625 147 148 114 0.40988958371638062 16 1354 2 652
199 -3.9364511137564007 1.3729730606484596 4.9401810068926917 140 145 114 1.0001812464039626 12 861 15 989 18 1573 24 862 22 683 9 683 11 659 17 859 14 1341 13 920 20 987 21 1279 25 702 27 883 20 984 34 906 40 1191
5285 -2.402959670903793 0.35169136092508302 3.6617937619069827 0 0 0 0.095145886514875516 3 638 16 944
198 -2.4370585243601597 1.1959099336427552 5.8370407792747265 181 144 38 0.50128321193070036 12 856 15 991 18 1488 24 2406 22 1591 23 1836 19 965 9 527 11 852 17 822 14 1339 13 744 20 685 21 711 25 723 27 693 26 817 10 543 16 668 28 620 6 658 3 942 1 770 29 705 38 1198 39 1233 40 538 35 1085
5284 -2.4984547553941394 0.40305711058748378 6.9357862082824182 136 136 108 0.44052645026621129 2 647 4 1011
197 -3.1580610693534137 1.2867161005796017 5.4927202329740847 101 69 0 0.25128704424842979 12 853 15 651
5283 -3.2735015055711774 0.97767987753918062 5.5020829722942812 133 139 113 0.49621841254673732 3 389 2 646
196 -2.4011339671821355 0.89782614860345267 6.2477270761965782 223 186 35 0.92059635443623877 12 841 15 1253 18 1194 24 1738 22 1549 23 2009 19 627 9 851 17 1305 13 499 39 1017
5282 -3.7815722371507619 1.3599857820942083 5.0088497901901743 83 83 47 1.5600702389784873 1 575 2 643 5 335 7 264
195 -3.1284683367006201 1.0304498008994649 5.6988705631153573 173 173 143 1.200497710045777 12 839 15 1229 18 1131 24 2453 23 2019 14 786
5281 -4.8883157345981587 1.8152640912172926 4.1056054061280784 187 181 159 1.9701882870120269 6 409 2 623 4 556
194 -3.0184216644900381 1.4711359075016768 3.7441896178935168 228 192 53 1.7820617679270834 12 827 15 933
5280 -4.7433449449696266 1.7287876308284755 4.2098492251344419 75 77 45 0.46254301771346645 1 598 2 621
193 -4.1943683680244481 1.6197648172923107 4.5879254972485279 180 176 131 0.90503849665154734 12 811 15 1125 11 848 17 805 13 1106 20 1221 21 1227
5278 -3.9646477485594422 1.1241860602291882 5.2383227429918442 146 150 123 0.32969261745632122 6 831 2 612
191 -4.7076085458096166 1.6767499061789257 4.4269516848119013 170 174 152 0.83486769124861737 12 803 15 925 24 2181 14 613
190 -5.0428609310089758 1.7141505627585174 4.2827048449742566 136 139 117 2.0667079167632396 12 801 15 615 17 653 17 819 13 1103
5275 -3.4411553189318353 0.87789907744727724 5.7961594142678834 92 98 72 0.7552837937868857 1 714 2 599 4 839 7 820
188 -3.5129600425988108 1.3776369044787813 5.2238318217550432 150 112 0 1.2705876416364004 12 786 15 1409 9 737 11 689 14 745 13 617 20 1193 21 1214 25 967 27 1396
5274 -5.8236415375373154 2.4635578046399118 5.4692332145587619 133 132 102 0.35704607638481345 6 866 2 597
187 -3.3655635449510548 1.3984311933055584 5.2135217340342086 233 196 21 1.1988212856696248 12 780 15 1010 9 1337
5273 -2.3899388411475186 0.48614069496746704 6.8932248812019239 138 137 109 2.2198911838317823 3 643 2 596
186 -2.6194199949804884 1.8636133282467331 4.7396556991071792 229 199 20 1.0732975159928788 12 762 15 833 14 1223 13 813 25 860
5271 -3.4575122053849658 0.83961485545378822 5.8786323049866471 144 148 123 0.10116655282944118 1 736 2 582
184 -7.8289198520264947 0.39768809897707641 7.2066491699760222 108 109 101 0.67760357492051548 15 1328 22 1251 23 1389 19 1284
2541 -4.8435820746071352 0.51106925484197696 6.0739278101792227 156 111 0 1.5754222873052635 11 407 17 422 13 520 21 248 25 235 27 249 26 266
5269 -4.5382072387602204 0.40405832697223598 6.2127815713260279 186 150 0 1.2194254787098799 16 751 2 556 4 653 7 868 5 848 8 537
182 -3.4472770652526714 1.7508870846847424 5.2510973063411805 18 1 0 1.1164036309660204 12 739 15 923 18 612 24 626 22 792 23 560 19 796 9 932 11 579 17 608 14 642 13 857 20 1120 21 750 25 898 27 1269 10 1430 16 1188 40 1140 38 921
5268 -4.8719238650133043 1.7244421865646467 4.3260357148994437 155 159 134 0.54790765870618596 1 742 2 549 7 874 4 756
181 -4.175654280384661 0.59976592443402177 6.1448561415590852 237 214 58 1.8039832610922033 12 738 15 416 24 698 22 503 23 477 39 824 40 605
5266 -3.0910100345610236 1.7375256644681232 4.8942732602872834 138 127 87 2.4044482521164836 1 758 2 534
179 -3.838891784508359 2.1463010385716337 4.4836182519898458 155 124 30 1.6635250813300204 12 729 18 581 24 1310 17 1366 22 1350 14 841 13 1002
5265 -4.4418863649934668 2.6110510513088512 4.7636076377677714 100 71 22 0.98013741437409163 1 947 2 528 4 996
178 -2.3393075309499913 2.0691344274147179 4.8073733335531514 115 0 0 1.1322886846488112 12 723 15 1101 18 1446 24 1318 22 1101 19 865 9 626 11 598 17 378 14 1358 20 449 21 366 24 1198
5264 -2.4485797984333963 1.4275564147647197 6.0659723112162984 168 134 41 0.17717448023281995 1 610 2 522
177 -2.2559709513977415 2.0242220645097522 4.9037942777894212 141 28 33 0.83830661793240069 12 717 15 692 18 640 24 1191 22 1162 23 581 19 1796 9 632 11 601 17 933 14 633 13 426 20 890 21 923 25 828 27 978 26 1236 10 322 28 995 29 763 39 1221 40 1099
5262 -3.1324213586165053 0.81678597740296588 3.0524720462028911 82 85 55 0.27836746901354525 16 522 2 499
175 -2.9771276826008406 0.88977602530833089 5.9407933975602196 69 72 40 1.545243277400973 12 694 15 1152 23 695 14 943
5261 -3.7161805817376714 1.1028549421374487 5.2498410001097966 31 37 11 0.63393869839160244 1 322 2 493 4 904 7 799
174 -3.2227051162859932 0.97043174999336212 5.6157133675681203 172 176 150 0.71762218179902404 12 693 15 1221 18 1167 11 855
5260 -2.4687146253251182 0.3120284130547023 2.7999700701879404 70 65 27 0.74402742996117688 1 595 2 479
173 -3.454185760223226 1.7400053399625377 5.257259669853406 144 122 38 0.83905732294801783 12 676 15 975 18 898 24 843 22 796 11 1167 14 586 14 1232 13 817 20 1115
5259 -4.0253707565850183 1.1844283685182544 5.1542981692752257 155 159 132 0.57672411773635579 1 734 2 478 4 312 7 525
172 -7.9932390229895303 0.54084549139582327 6.9687467073832448 21 20 14 1.1944355671526414 12 673 15 609 18 823 13 386 11 412
